//X,Y,Z
82.989723,15.723617,25.590443
83.020195,15.773209,25.968197
81.796349,15.252359,24.569036
82.600845,15.605737,25.591722
82.742882,15.741080,26.455389
83.376862,15.914522,26.277838
83.244820,15.763394,25.237988
82.764717,15.554564,24.646935
85.004860,16.199772,24.322548
83.006546,15.766708,25.946112
82.367134,15.690966,27.053881
84.061455,15.914211,24.329575
82.909523,15.659783,25.220650
84.016876,15.983318,25.103313
83.442398,15.904318,25.996061
82.483566,15.695463,26.765135
83.073448,15.783809,25.916119
82.034515,15.588732,27.041798
82.247162,15.456443,25.198893
82.747986,15.624174,25.346273
82.750336,15.656648,25.643646
82.246368,15.583281,26.388763
82.572861,15.476987,24.465721
82.426964,15.631341,26.325581
83.878052,15.888666,24.611547
82.485054,15.531321,25.223991
84.232864,15.955515,24.229221
82.598595,15.683782,26.328896
82.017975,15.311203,24.490225
82.725578,15.750475,26.592520
82.720848,15.710070,26.227629
83.445099,15.914527,26.083992
82.863335,15.747087,26.169352
81.882813,15.585467,27.442314
83.388535,15.812038,25.285076
81.949249,15.624662,27.620537
82.450340,15.694543,26.850927
82.030083,15.394782,25.238405
83.385803,15.739049,24.609430
84.457161,16.052244,24.497578
82.273849,15.689106,27.301550
83.999046,15.990627,25.222431
82.922020,15.651069,25.103540
82.840263,15.812970,26.851793
83.358490,15.751519,24.803793
82.675987,15.693762,26.202404
81.967072,15.625466,27.577438
83.409653,15.721762,24.379787
82.128136,15.398698,24.996431
84.070671,15.963191,24.761986
82.442284,15.722083,27.131699
82.321480,15.539351,25.764015
81.848145,15.277340,24.655745
84.142632,16.035620,25.235670
84.622734,16.083305,24.317917
82.162933,15.616628,26.938091
82.547882,15.533080,25.061913
82.415855,15.695045,26.953642
82.847313,15.718796,25.949984
84.873550,16.164967,24.369808
83.244644,15.672781,24.390064
83.065056,15.710799,25.256353
85.131531,16.231607,24.260696
82.697189,15.758708,26.750290
84.508301,16.068703,24.506351
82.844330,15.717358,25.944986
83.667175,15.937075,25.664042
81.816772,15.374649,25.656023
82.407867,15.607505,26.156675
82.622627,15.454574,24.114470
82.905701,15.629577,24.948664
81.904526,15.260303,24.335989
83.532494,15.777443,24.552073
82.227821,15.411478,24.832842
84.095810,15.930565,24.385069
83.125801,15.692559,24.912951
84.849098,16.129608,24.108210
85.056114,16.210424,24.276659
82.423836,15.406305,24.227400
83.458992,15.885550,25.773184
82.701218,15.766994,26.816423
81.786980,15.573092,27.598782
82.992859,15.707537,25.430952
81.934143,15.463387,26.153385
81.798409,15.551422,27.363400
82.749840,15.583677,24.961809
82.483284,15.696285,26.773638
81.977623,15.487343,26.254141
82.238533,15.614550,26.703804
83.679970,15.883713,25.128046
84.958504,16.196999,24.428307
83.263649,15.782371,25.362162
83.018250,15.624894,24.584988
82.628471,15.726100,26.640244
82.448067,15.555676,25.557140
85.131180,16.231050,24.256468
83.768311,15.853513,24.594252
82.096222,15.431022,25.389791
83.289978,15.658437,24.126925
83.878029,15.964872,25.325174
82.137192,15.536543,26.261379
82.137917,15.331951,24.343645
82.188660,15.525058,26.007587
82.992180,15.810758,26.399372
82.784470,15.655880,25.539450
83.818710,15.895370,24.842951
85.074028,16.218870,24.304832
85.158882,16.224342,24.114941
82.856659,15.754585,26.258514
83.071533,15.601127,24.211052
82.431595,15.490756,24.996078
84.113312,15.923994,24.273819
83.047012,15.783952,25.992586
82.377396,15.512123,25.350168
84.718758,16.147680,24.647795
81.947777,15.581837,27.223736
82.284470,15.619922,26.623577
82.994629,15.579743,24.229376
84.300018,15.982003,24.286415
83.451569,15.858532,25.541302
83.092125,15.808416,26.093435
83.722450,15.920524,25.352005
82.798950,15.767972,26.547850
83.985214,16.019999,25.536741
84.072784,16.015593,25.246649
82.159569,15.573632,26.545080
81.866577,15.339989,25.189951
83.671677,15.798940,24.357845
81.835022,15.423609,26.062592
81.887840,15.399115,25.683167
82.919189,15.617000,24.792583
82.306671,15.492369,25.366167
84.195557,16.042223,25.147102
84.511642,16.091223,24.707714
79.006050,31.397486,43.675179
78.764343,31.832449,43.721420
78.597015,32.846237,43.817825
78.718140,32.866325,43.816158
78.370949,33.264526,43.862110
78.043823,34.214432,43.957329
78.396172,33.332336,43.867512
79.258385,31.431658,43.671021
79.067223,31.893570,43.718246
78.348763,33.349213,43.870396
78.771149,31.297119,43.672855
78.472961,32.604969,43.799587
78.972282,31.865410,43.718426
78.175262,34.059963,43.939598
79.118637,31.251833,43.658787
78.157753,33.778374,43.914658
78.760468,31.471304,43.688900
78.762032,31.815544,43.719955
78.764442,31.854738,43.723431
78.581322,33.203373,43.850540
78.670799,32.107693,43.748974
79.153053,31.339165,43.665688
78.210548,33.589375,43.896065
78.523567,32.500637,43.788708
78.772530,32.178017,43.752407
78.364471,32.862385,43.825958
78.679688,31.764946,43.717751
78.671738,31.706701,43.712719
78.529266,33.326309,43.863144
78.251892,33.485504,43.885490
78.474426,32.738991,43.811653
78.337738,33.092422,43.847515
78.614395,32.613266,43.796276
78.495850,33.046448,43.838818
78.709137,31.146492,43.661026
78.662605,31.642822,43.707207
78.675270,31.477600,43.691914
78.695549,32.122749,43.749626
78.710617,31.773859,4.340947
78.488213,32.785061,4.234377
78.735374,31.724407,4.346558
78.126740,33.872776,4.116230
78.376213,32.512619,4.258149
78.645195,32.138298,4.302962
78.448380,32.142345,4.296905
78.796432,31.644251,4.356254
78.509460,32.385780,4.274543
78.521660,32.464874,4.267059
78.339859,32.739990,4.234578
78.737411,31.291304,4.389523
77.966454,34.487865,4.050688
78.085197,33.987278,4.103693
78.353241,33.098999,4.199396
78.131714,33.919067,4.111787
78.776588,31.155319,4.404120
78.989731,31.564531,4.369707
78.706512,31.489578,4.368992
78.877907,32.199612,4.303576
79.024300,31.382986,4.388686
78.448647,33.190735,4.193050
78.628647,32.180134,4.298342
78.543472,31.780178,4.335517
78.976479,31.329777,4.392582
78.049728,34.182983,4.083285
78.738083,32.120476,4.307397
78.281570,33.623787,4.145347
78.947281,32.040966,4.321287
78.492996,32.555958,4.257212
78.367027,32.536327,4.255535
78.480652,33.052429,4.207672
78.438873,33.212616,4.190602
78.447029,31.940813,4.316831
78.434372,32.118290,4.298885
79.177818,31.339798,4.397377
78.152046,34.057953,4.098612
78.154526,33.493401,4.154613
84.769676,16.357801,21.528841
84.388252,16.197832,21.980751
85.290565,16.525404,21.430323
83.636223,15.907890,22.612097
84.876167,16.406982,21.356585
84.181961,15.947796,23.892601
84.569740,16.269199,21.814142
82.588394,15.523918,23.287712
85.053589,16.412619,21.847702
84.337952,16.160463,22.206278
82.134789,15.315209,24.013420
85.098343,16.282881,23.309063
83.241203,15.745830,23.043297
84.599419,16.318851,21.399593
85.238129,16.337627,23.183027
85.213165,16.538311,21.059372
84.788452,16.304630,22.129091
83.389473,15.776649,23.187469
84.816452,16.367010,21.579569
83.972107,16.089268,21.801081
82.379089,15.398014,23.924448
85.189011,16.464312,21.739315
83.181961,15.656566,23.770365
82.881294,15.629128,23.120491
81.915215,15.243618,24.064566
83.769005,15.998018,22.103590
83.803223,15.905816,23.149624
85.217735,16.265131,23.859247
85.015945,16.486307,20.979897
84.709869,16.216303,22.786823
84.963219,16.446135,21.226492
84.493088,16.163055,22.659521
83.423981,15.789684,23.161224
84.227852,16.145161,22.021883
84.656311,16.158030,23.215462
84.267075,16.119013,22.409805
84.777603,16.329399,21.842964
83.698135,15.955100,22.322124
84.729851,16.102053,24.013685
84.410080,16.082771,23.221544
84.389015,15.996708,24.034039
84.660782,16.210724,22.691942
83.203468,15.674255,23.656498
85.300697,16.412275,22.615284
83.818253,15.964812,22.594463
85.338493,16.539886,21.430820
84.291077,16.045921,23.229366
84.716484,16.322792,21.721355
84.742989,16.369953,21.322409
83.778374,15.918717,22.941229
84.562508,16.329203,21.179895
85.440956,16.438686,22.779633
83.245834,15.790145,22.605694
84.529610,16.131199,23.097296
83.741074,15.798350,24.053333
83.512413,15.726968,24.074236
83.537666,15.750419,23.913170
84.730453,16.181385,23.206545
84.047295,16.037653,22.559916
83.745865,15.847368,23.568291
84.636597,16.303717,21.668869
82.283028,15.373212,23.880302
82.474602,15.465774,23.528782
84.082367,16.067410,22.364895
83.606331,15.904872,22.550446
82.629295,15.511317,23.542671
84.817627,16.420185,21.040934
83.179253,15.718607,23.129322
85.208359,16.256926,23.913956
84.745483,16.222786,22.830814
84.768471,16.335777,21.749687
83.459747,15.837752,22.781660
84.979370,16.230036,23.480122
85.161018,16.378338,22.529467
83.905334,15.891306,23.613310
82.124161,15.332057,23.808784
85.278374,16.478361,21.872337
83.146461,15.734488,22.865978
84.133331,16.118649,22.000002
84.056847,16.091257,22.042822
84.137711,16.154566,21.647257
83.906334,16.001259,22.495174
83.427437,15.743667,23.641172
84.281555,16.012987,23.535784
83.790955,15.814486,24.043015
84.725174,16.100763,24.012342
83.287628,15.814211,22.489517
84.092720,15.933422,23.763256
82.458328,15.459481,23.542645
83.196846,15.709626,23.275316
83.380455,15.810326,22.816168
84.012939,15.943866,23.410049
84.311935,16.217861,21.540497
84.933601,16.227852,23.360838
85.503006,16.397915,23.387243
84.747414,16.275576,22.298494
85.172043,16.415543,22.184134
83.573685,15.886329,22.638620
84.831337,16.373028,21.564205
85.276604,16.615540,20.468004
83.116280,15.680735,23.320824
84.421669,16.093815,23.144775
84.922485,16.179092,23.823681
83.634689,15.824415,23.458593
82.775368,15.589826,23.193726
82.800476,15.540322,23.776205
84.936455,16.181034,23.847095
84.643036,16.164352,23.109907
85.170097,16.557102,20.734612
83.187202,15.758615,22.745930
83.297340,15.701522,23.668692
82.346107,15.398590,23.816566
85.303268,16.503235,21.695683
82.397400,15.449850,23.452436
83.461647,15.784298,23.332609
85.409279,16.500319,22.053209
85.348648,16.448563,22.393501
85.185051,16.298922,23.413618
85.087509,16.324488,22.851309
84.358910,16.012531,23.779615
84.411232,16.093504,23.115656
83.357239,15.822764,22.617537
85.184898,16.556595,20.785559
83.527817,15.805964,23.316294
84.493355,16.235893,21.917593
84.987625,16.356461,22.216412
84.784233,16.252230,22.650391
83.462502,15.769055,23.490704
84.966728,16.428576,21.416416
84.138336,16.027098,22.949034
83.486816,15.730457,23.959497
83.379135,15.804442,22.872078
83.621094,15.944593,22.191044
84.061958,16.013397,22.852573
84.483322,16.085297,23.422243
84.538315,16.223248,22.185570
82.687225,15.479921,24.041952
84.540680,16.112165,23.325603
85.239586,16.342169,23.141226
84.567276,16.164175,22.877497
84.701363,16.148090,23.456144
84.850998,16.190437,23.486979
82.151566,15.341457,23.797668
83.845680,15.868189,23.664602
85.191895,16.361996,22.791578
85.321442,16.337772,23.439177
83.145622,15.714450,23.067745
83.885353,15.841572,24.058702
85.280670,16.467606,21.989126
85.014297,16.461061,21.232220
83.094147,15.702679,23.028618
83.998390,15.872625,24.091547
83.037643,15.588583,24.017378
83.632065,15.930368,22.370033
84.462547,16.233950,21.842159
84.159073,16.116831,22.098108
84.259598,16.063311,22.954712
84.728081,16.311607,21.871271
83.351723,15.731236,23.533840
82.392113,15.404907,23.894405
83.765892,15.969291,22.386890
84.941933,16.342918,22.213226
85.403664,16.417704,22.878311
85.221924,16.485298,21.627045
83.600540,15.789818,23.705811
83.278122,15.679640,23.832382
84.898575,16.454203,20.944380
83.671356,15.924491,22.551464
84.853905,16.376097,21.602713
84.038025,16.102316,21.871832
85.280495,16.275698,23.945555
85.439751,16.543158,21.710546
83.725861,15.984439,22.108646
84.911163,16.307949,22.474674
84.622833,16.112782,23.573360
83.955948,15.868044,24.007025
85.317108,16.478403,21.991682
83.029045,15.697725,22.877819
83.951065,15.996367,22.683342
85.068726,16.305252,22.989376
84.665840,16.274096,22.061346
85.240707,16.475174,21.788397
82.910126,15.569478,23.817932
84.844742,16.141794,23.963644
83.944901,16.060230,22.013069
85.319427,16.334597,23.465305
83.407265,15.694431,24.080885
84.526665,16.254311,21.832775
84.244667,16.161474,21.907537
82.175575,15.338470,23.902357
85.347145,16.471937,22.150503
84.638885,16.160542,23.135977
83.011200,15.848993,21.280209
85.029327,16.534153,20.533352
83.143250,15.879780,21.374538
82.568092,15.708759,21.340143
82.785286,15.663869,22.469379
84.516220,16.336870,20.958595
82.349686,15.683832,20.919041
83.239738,15.892389,21.544287
82.743996,15.817800,20.772120
84.586098,16.353554,21.004507
83.386490,16.064775,20.240242
83.098969,15.783387,22.220537
83.707939,16.042036,21.465929
85.088287,16.579092,20.257406
83.061577,15.917411,20.738293
81.769302,15.480647,21.196472
82.073097,15.587206,21.049164
83.096420,15.937558,20.640581
82.294182,15.565958,21.949368
81.934937,15.531624,21.188774
83.281418,15.919622,21.395452
82.464233,15.508361,23.062441
82.675392,15.694252,21.819817
83.829338,16.167597,20.560942
82.425529,15.568846,22.326035
83.906929,16.187681,20.596035
81.908615,15.311203,23.354971
83.827347,16.191582,20.310226
84.695534,16.398468,20.884880
81.827423,15.435860,21.832851
82.765839,15.665628,22.391325
81.768066,15.426211,21.747711
84.134773,16.270981,20.451101
81.781197,15.293221,23.144394
82.417145,15.548885,22.503651
81.787643,15.334281,22.745634
84.421082,16.330374,20.730692
81.851524,15.336446,22.921076
82.437492,15.589317,22.154282
84.326363,16.294172,20.806978
82.735977,15.752242,21.415804
84.441254,16.335400,20.741816
82.959671,15.846620,21.145067
82.025841,15.594694,20.826693
82.954010,15.882986,20.756739
83.497337,15.995506,21.289249
84.356377,16.319654,20.639914
82.960266,15.773463,21.892866
82.278008,15.561667,21.943110
82.006218,15.426443,22.481657
81.889099,15.594055,20.410425
82.723381,15.650773,22.411516
81.764221,15.556053,20.411854
82.456558,15.633713,21.760530
82.810272,15.728242,21.890249
82.874962,15.912448,20.211916
82.010078,15.528147,21.456547
82.457214,15.508043,23.043991
82.132317,15.376912,23.376602
82.457924,15.657644,21.520725
85.146660,16.596102,20.264427
82.111771,15.371589,23.367359
82.947784,15.678960,22.817942
82.206528,15.456157,22.798002
83.444496,16.083376,20.229879
82.128418,15.549686,21.602795
84.198715,16.253113,20.831003
83.116013,15.810912,21.992559
81.795067,15.394727,22.152239
82.921425,15.740805,22.105799
83.349487,15.855749,22.257196
81.855316,15.562222,20.630590
82.940613,15.685686,22.727160
81.899490,15.291660,23.526045
82.283936,15.424064,23.364592
82.232094,15.647737,20.923555
82.831055,15.726768,21.969532
81.913849,15.258562,23.907938
82.028908,15.348684,23.344736
82.366219,15.588803,21.939144
81.840416,15.228328,23.989191
81.877792,15.303802,23.335171
82.947685,15.816075,21.419456
82.829353,15.684386,22.396429
82.435532,15.618275,21.852943
82.022835,15.426246,22.535072
83.031052,15.828959,21.545837
82.569954,15.547081,22.994499
83.558083,16.083733,20.577435
84.128426,16.173374,21.426758
82.219849,15.566999,21.708921
82.049370,15.383004,23.058037
83.504730,15.945643,21.820570
81.904007,15.416018,22.271957
82.877815,15.866927,20.684927
82.073036,15.380121,23.160593
83.832985,16.098631,21.275490
83.866272,16.199213,20.352755
83.349823,15.896676,21.840921
82.588760,15.771811,20.761122
82.380585,15.651812,21.341064
82.641350,15.781793,20.821917
81.811943,15.458926,21.549791
84.017555,16.191601,20.898109
83.831390,16.117439,21.078720
82.582588,15.694282,21.532593
83.891251,16.201029,20.411488
82.759865,15.861707,20.373484
81.898293,15.248826,23.959145
84.748741,16.461725,20.404375
82.907959,15.798783,21.472958
82.462273,15.566242,22.466171
82.706520,15.725690,21.595488
84.060913,16.234194,20.597849
84.143486,16.242281,20.770699
83.785255,16.141087,20.694977
81.894371,15.510123,21.282574
84.208572,16.293673,20.447908
83.074951,15.737155,22.617712
82.395256,15.639053,21.516554
83.277641,15.951010,21.063717
82.227486,15.579013,21.610044
84.078392,16.186695,21.136248
82.194931,15.473381,22.586512
84.254898,16.273928,20.792456
82.778168,15.616785,22.927494
84.934715,16.537571,20.205990
81.976234,15.450076,22.147984
83.333405,15.873834,22.023104
84.163002,16.256861,20.682339
83.069695,15.883249,21.111736
82.363129,15.604866,21.765821
81.882149,15.540830,20.931707
82.755371,15.781301,21.179443
83.040436,15.921576,20.630463
82.352989,15.568473,22.105566
82.248314,15.665990,20.787558
82.106339,15.407357,22.985817
83.093307,15.780455,22.232916
82.209946,15.383994,23.544415
84.614655,16.437435,20.237495
82.196594,15.434300,22.990166
82.030060,15.413157,22.690857
82.230934,15.487291,22.555986
82.308876,15.622952,21.413651
82.241844,15.425462,23.220182
82.388817,15.707316,20.800556
83.917847,16.132479,21.192675
84.707497,16.451586,20.380238
82.906853,15.760291,21.862036
83.433693,15.995241,21.095182
82.659042,15.606720,22.661814
83.203644,15.863209,21.730209
82.794907,15.700021,22.130499
84.525536,16.331390,21.043259
82.561760,15.565715,22.779146
82.692268,15.622914,22.599415
83.351776,16.031746,20.469677
82.528015,15.761683,20.676573
82.502541,15.537730,22.881414
82.179237,15.601879,21.227697
84.573914,16.399132,20.502083
81.936234,15.313267,23.419353
83.506477,15.942395,21.859064
82.412971,15.600409,21.965366
82.236244,15.675630,20.651949
84.035713,16.171101,21.163275
82.469765,15.577715,22.372393
84.688889,16.429167,20.551310
82.904823,15.849011,20.951097
82.346443,15.589255,21.873415
82.022362,15.412872,22.669968
83.500504,15.966172,21.598156
81.848747,15.403078,22.233046
82.921707,15.813741,21.362947
82.559883,15.543475,23.000124
83.245895,15.896485,21.521568
83.437370,15.916320,21.911301
81.788391,15.478049,21.281969
83.890465,16.096994,21.469852
82.686066,15.760697,21.175264
85.058746,16.550859,20.453936
82.461548,15.621525,21.900234
83.430641,15.993012,21.108454
82.589676,15.541441,23.112993
82.185898,15.506085,22.225096
84.615326,16.374702,20.879240
84.529297,16.333483,21.033556
83.164192,15.942919,20.795435
79.067154,30.511814,43.457775
79.649452,30.026472,43.267025
79.511078,30.949478,43.544155
80.230759,29.042591,42.933277
78.995316,30.604189,43.490635
79.686043,29.826105,43.206287
80.390305,28.553537,42.778820
79.362183,30.223055,43.348827
79.287292,30.201321,43.349213
79.067482,30.453880,43.441120
79.404007,30.156822,43.326126
80.501595,28.435865,42.735210
79.176041,30.334709,43.397324
79.349075,30.804764,43.516941
79.355858,30.456963,43.416523
78.852409,30.913483,43.592033
79.380898,29.999329,43.282967
79.425148,29.918951,43.255985
80.505875,28.480915,42.747765
79.239746,30.867043,43.544476
79.091522,30.463928,43.441879
79.192757,31.115757,43.620010
79.633308,29.972088,43.252842
79.480843,30.881296,43.527260
79.010292,30.849417,43.559692
79.974686,29.703671,43.145638
79.567566,30.463186,43.399597
79.204361,30.474852,43.435043
79.179680,30.654192,43.488693
80.318932,28.735853,42.837452
79.507233,29.905176,43.244781
78.958984,31.050215,43.621857
78.946259,30.778643,43.545040
79.213669,30.680910,43.493359
79.428612,30.692646,43.477734
79.279839,30.322796,43.384731
80.114464,29.011665,42.934677
79.131088,30.381973,43.414864
79.254692,30.056408,43.310501
79.118256,29.217911,43.081905
79.284424,29.313211,43.094574
80.570992,27.904854,42.576675
79.225563,29.928478,43.276360
79.745811,29.120728,42.998554
79.115051,28.754911,42.949306
79.772774,29.258312,43.035660
78.750336,30.585045,43.506790
79.204697,28.773661,42.946762
80.605209,27.791197,42.541035
79.812050,28.904850,42.930744
79.853775,28.975214,42.947254
78.837936,30.227980,43.396568
79.332077,28.289520,42.796558
79.456581,28.848473,42.945976
79.936897,28.564907,42.822147
80.581856,27.810265,42.548569
79.535583,27.737528,42.620152
79.388176,27.686411,42.618507
79.407295,29.146812,43.035957
79.629372,29.513094,43.121456
80.038795,28.244585,42.721210
79.599701,28.899490,42.947971
79.501717,28.735985,42.909706
79.179878,30.171659,43.350189
79.703773,28.325127,42.773930
80.178497,28.571814,42.802780
79.844330,28.492538,42.809559
79.631851,28.460585,42.819164
79.311127,28.964449,42.992119
79.297379,28.038719,42.727646
79.464714,28.396502,42.815540
79.245453,28.710272,42.924973
79.875717,27.904518,42.638020
79.517242,29.224886,43.048653
79.038651,29.246336,43.097099
79.605301,27.942064,42.672691
79.975990,28.396059,42.770233
79.429924,29.569321,43.155220
79.435432,28.053413,42.719662
78.920357,30.201965,43.381821
79.264397,28.082972,42.743259
80.114159,28.127964,42.681080
79.100662,30.194820,43.363838
79.024719,30.440382,43.441025
79.640480,27.701334,42.600494
79.921028,27.563747,42.536213
79.618210,28.334463,42.784172
79.195168,28.791298,42.952671
79.868584,27.694424,42.578354
79.457901,29.172514,43.038860
79.746933,27.807163,42.621464
80.527969,28.125603,42.643837
79.689285,27.973021,42.674160
79.480560,29.059404,43.004395
80.467407,28.037914,42.624020
79.574867,28.062422,42.709927
79.706787,29.308378,43.055862
79.100815,30.133162,43.346127
78.930786,30.068205,43.342506
80.286835,27.683830,42.538353
79.313683,29.213200,43.063282
79.432533,27.474253,42.553699
79.196716,29.309038,43.101124
80.096596,28.860537,42.892883
80.304947,27.974003,42.620033
79.829956,27.815960,42.616646
79.602043,28.961100,42.965450
79.134369,29.343155,43.116425
79.964966,28.920685,42.921780
79.260651,27.980219,42.714100
79.269661,28.017687,42.724060
78.951248,30.049757,43.335407
83.778061,16.258778,19.972395
83.100235,16.253746,19.327768
82.745438,16.177118,19.228477
83.936012,16.810179,18.351845
84.110565,16.573229,19.284576
85.193657,17.055006,18.790018
84.444298,16.746428,19.052540
84.803253,17.575279,16.735039
83.987175,16.464817,19.513180
85.111023,17.219126,18.181276
84.351974,16.703489,19.100716
84.994133,16.929144,19.000551
84.627068,16.561253,19.826670
84.851219,17.241039,17.857471
84.483727,16.616592,19.508821
84.951851,16.928818,18.960392
84.832527,16.531300,20.123365
83.606071,16.447104,19.198650
84.872841,17.607882,16.697956
84.708122,17.423517,17.130711
84.134552,16.715912,18.848770
83.442276,16.425713,19.107803
85.105141,16.609270,20.138208
84.701164,16.800837,19.127871
83.916435,16.247324,20.144161
83.645744,16.822731,18.028458
84.697197,17.429565,17.100590
83.798363,16.523447,19.140419
85.142441,16.781540,19.620161
84.126953,17.005686,17.908806
84.383270,16.803928,18.807991
84.993584,16.950176,18.932333
84.398872,16.958704,18.325092
83.501503,16.726053,18.198967
84.957848,17.605455,16.788641
83.545967,16.650299,18.486120
84.160774,16.728344,18.834318
83.935669,16.718977,18.645018
84.576355,17.047754,18.211540
84.295135,16.624123,19.300726
84.141930,16.421352,19.803932
83.909088,16.375889,19.723248
83.636414,16.768896,18.192623
83.988167,16.742607,18.620153
83.697723,16.200294,20.082289
83.621223,16.821592,18.008213
84.507828,17.407356,16.987442
82.971954,16.248171,19.220650
82.610558,15.996988,19.676687
85.254860,16.827242,19.582682
84.355141,16.718323,19.056067
83.433212,16.485655,18.906055
84.513771,16.838577,18.823713
84.942116,17.000998,18.718596
84.446068,16.697672,19.211180
84.675316,17.088757,18.176058
85.040688,16.947487,18.986914
82.444908,16.008974,19.476627
84.160095,16.524155,19.490801
84.288048,16.834133,18.617956
83.565247,16.264832,19.745438
84.089928,17.069889,17.666086
82.424248,15.908484,19.779879
84.064438,16.819834,18.445976
84.181992,16.799797,18.625051
84.964546,17.225107,18.019220
84.975464,16.804174,19.384541
82.338425,15.974164,19.484842
83.967476,16.939693,17.965708
84.620193,17.405163,17.104052
82.405304,15.965570,19.577698
84.843575,17.450069,17.177298
83.112473,16.400194,18.868385
82.572632,15.961044,19.755388
83.618614,16.271513,19.775969
82.967865,16.286806,19.092329
82.273148,15.880939,19.721226
84.387268,17.323282,17.140480
83.724884,16.869213,17.956020
83.666206,16.609957,18.733166
84.535263,17.335625,17.245041
84.854507,16.521404,20.176634
82.621078,15.894485,20.016830
84.670738,17.496016,16.860939
84.871567,17.621490,16.652918
84.849075,17.394983,17.359953
84.872772,17.280920,17.750135
83.356407,16.248217,19.595308
84.190125,16.529720,19.502163
82.639595,15.936460,19.899796
83.421387,16.619991,18.462196
83.640724,16.365717,19.494347
83.127731,16.205856,19.508701
84.604561,16.965656,18.503248
84.383392,17.108362,17.828362
84.703407,16.838169,19.009901
83.686424,16.207954,20.046625
84.869972,16.759737,19.424700
84.238686,17.184847,17.441137
82.514130,15.957906,19.708456
84.065773,16.952211,18.021246
84.782913,16.635326,19.740219
85.040192,16.850578,19.298304
83.608559,16.201328,19.992033
82.740280,16.216263,19.097477
83.410667,16.438314,19.036438
84.895073,17.254913,17.855576
82.909615,16.160528,19.441933
83.895416,16.754593,18.491156
84.748291,16.940229,18.725208
84.363632,16.484705,19.816185
84.390160,16.374241,20.197548
84.641136,17.209576,17.753914
84.784081,16.639431,19.728136
84.225449,16.406195,19.934137
82.401039,15.905513,19.766825
84.836662,16.799551,19.264093
84.002373,16.637350,18.972742
83.878288,16.500303,19.292824
83.070465,16.412195,18.788824
83.446617,16.296738,19.527109
82.763954,16.066944,19.601099
83.918510,16.345171,19.831287
83.894112,16.928520,17.930143
84.041687,17.081568,17.581465
84.799690,17.215372,17.889832
83.382919,16.410238,19.099730
83.883186,16.700819,18.652292
82.814774,15.901392,20.183434
83.600502,16.535500,18.908739
83.667984,16.613703,18.722843
82.857704,15.985998,19.953001
82.896454,16.048235,19.790485
84.897095,17.305746,17.693949
85.029922,16.908524,19.101801
83.151581,16.350094,19.067751
84.441780,17.066790,18.019081
84.754692,16.741230,19.371874
84.286583,16.423203,19.938999
84.667824,16.943943,18.634808
84.383301,17.209887,17.501541
84.005295,16.373173,19.825777
84.595215,17.206055,17.720476
82.352554,15.888344,19.774805
83.785912,16.309082,19.818155
84.999878,17.329813,17.716700
83.971970,16.433640,19.598694
84.971626,17.330107,17.688219
83.780853,16.466934,19.305223
84.219048,16.444899,19.803339
84.285988,16.751421,18.882126
84.658569,16.776869,19.163467
83.582153,16.749132,18.203327
84.669777,16.932205,18.674482
84.157776,16.821239,18.532446
81.835800,15.609762,20.167564
84.345421,16.988337,18.177612
82.881554,16.096197,19.621609
82.989868,16.314383,19.025032
84.584610,17.354963,17.230913
83.294426,16.372131,19.136095
84.767044,16.726955,19.429855
84.376419,17.244030,17.384956
84.133568,17.104877,17.596022
84.181046,17.119215,17.596170
82.860352,16.214233,19.221066
83.266823,16.460752,18.823982
84.985382,17.468317,17.256826
85.123146,16.615204,20.136663
83.311157,16.292477,19.408754
83.851822,16.782656,18.358343
83.635216,16.166862,20.128939
84.392715,17.144423,17.721411
83.662834,16.243725,19.908506
84.019142,16.860563,18.270735
83.338234,16.427786,18.999691
82.732758,16.022894,19.712456
85.090088,17.160686,18.348938
82.991013,15.979277,20.104603
84.302040,17.254507,17.278725
81.818993,15.614483,20.135979
83.195007,16.169361,19.691734
85.071922,16.963591,18.965532
85.008713,16.967924,18.889961
84.320427,17.189539,17.505730
84.167213,16.586357,19.297558
84.918167,17.129143,18.282850
85.201599,17.086515,18.696352
84.116295,16.512539,19.485477
82.277725,16.607712,17.386703
82.460564,16.410446,18.199825
82.617981,16.788450,17.136768
82.186348,15.953957,19.401604
81.919182,15.985825,19.038570
83.004463,16.912390,17.114693
81.997795,15.813946,19.668369
82.028328,16.792538,16.548723
81.967072,16.753445,16.614817
82.322090,16.714888,17.085026
84.314941,17.375565,16.901712
82.259148,16.807880,16.724386
81.712990,16.552311,17.014412
82.292534,16.119591,18.972063
83.277237,16.785427,17.789244
81.745201,16.560938,17.018044
82.958893,16.950253,16.948400
81.749870,16.619675,16.833565
82.221527,16.105022,18.949728
82.508156,16.692957,17.337013
81.907623,16.179443,18.404169
82.114143,15.961009,19.308506
82.447601,16.195175,18.880001
83.940910,17.184784,17.151033
82.316391,16.557346,17.586496
82.569855,16.368931,18.439981
83.587006,16.839455,17.917374
82.027786,16.638803,17.042952
83.238457,17.078695,16.807600
82.095375,16.625914,17.150333
83.472290,17.044968,17.144129
84.165062,17.230398,17.222769
83.583702,16.951525,17.553474
81.820930,15.695193,19.878122
82.688255,16.834866,17.055908
81.627388,16.514408,17.052933
81.826843,15.690282,19.899696
82.989937,16.723825,17.707380
83.186867,16.613232,18.255312
82.464790,16.064764,19.316465
81.729645,15.777516,19.524183
82.119667,16.112450,18.826509
81.618439,16.334126,17.624416
81.690430,16.226585,18.040705
81.952293,16.359377,17.868641
82.914742,16.402086,18.669537
81.644646,15.962066,18.847372
81.900215,16.249538,18.171362
82.478043,16.865385,16.752733
83.096733,16.759680,17.696115
83.320915,17.158329,16.631708
82.390556,16.482738,17.898911
81.649437,16.462072,17.242867
84.112656,17.235308,17.155878
83.010498,16.446463,18.620073
83.325172,16.709255,18.081118
82.910126,16.577915,18.099157
83.863846,17.129301,17.254463
81.705269,15.781357,19.488056
82.032661,16.264414,18.252615
82.693687,16.952148,16.683744
81.735207,16.522484,17.132061
82.055779,16.816477,16.498446
84.039032,17.238594,17.073524
83.209389,17.017509,16.976177
82.861298,16.987436,16.733585
83.200928,16.679806,18.054764
82.666550,16.304018,18.743172
82.035332,15.911207,19.391956
82.102341,16.558645,17.373625
82.497559,16.145567,19.088356
84.294037,17.388098,16.840984
82.313553,16.450830,17.926525
84.077957,17.226046,17.151855
83.096169,16.740334,17.757832
81.778877,15.644572,20.000036
82.089737,15.939770,19.353075
82.676468,16.982784,16.568357
83.569801,17.290886,16.447744
82.601982,16.625338,17.646112
82.322395,15.988673,19.422514
81.750450,16.306486,17.842073
83.213188,16.621040,18.255848
83.695770,17.243954,16.721607
82.682808,16.435005,18.337471
81.661247,16.620031,16.746014
82.696198,16.294121,18.803938
83.361801,16.669823,18.243736
83.311615,16.736134,17.981401
81.861977,16.453711,17.476990
83.596138,17.258354,16.578125
83.696289,17.079170,17.252436
81.659691,16.445906,17.304897
82.951462,16.521202,18.321985
82.588249,16.591368,17.742048
82.006966,16.572321,17.236622
84.468430,17.430935,16.873150
81.889679,15.990909,18.993444
83.080315,16.950680,17.065414
82.160049,16.736845,16.856384
84.778870,17.621180,16.563547
82.595871,16.520433,17.977772
81.713936,15.846541,19.286722
83.220024,17.106888,16.698895
83.187225,16.700838,17.973709
83.218201,16.578281,18.398338
83.748062,17.089813,17.268669
83.732643,16.939522,17.737314
82.877213,16.782516,17.408598
83.111198,16.791883,17.606575
84.317627,17.422201,16.754234
82.253044,16.688095,17.103939
81.667854,15.785662,19.437719
84.475983,17.508118,16.632111
84.375854,17.518339,16.501595
82.597961,16.960457,16.563681
83.287308,16.947636,17.277016
83.909027,17.036722,17.596455
81.960419,16.117851,18.653870
82.778023,16.570333,17.994761
82.971481,16.425997,18.647892
83.064751,17.129240,16.475578
82.850716,16.567532,18.074650
82.934143,16.494829,18.389977
81.871925,16.754093,16.519972
81.709541,15.620055,20.011341
83.036621,16.686495,17.873045
81.804909,16.606173,16.930681
82.117035,16.642424,17.118328
82.120918,16.602804,17.249620
81.952332,16.470222,17.511944
82.527435,16.618097,17.596731
83.536575,17.202164,16.700893
82.456123,16.875238,16.699648
82.896606,16.527069,18.249619
83.842812,17.315735,16.633951
82.286377,15.954887,19.496132
82.874901,16.824879,17.270016
83.037941,16.969902,16.962238
82.272911,16.143227,18.876875
84.509995,17.464588,16.805367
81.738228,15.760729,19.586575
82.805374,16.393387,18.590906
82.195457,16.551689,17.486792
83.259537,17.002451,17.073526
83.119789,16.790697,17.618773
83.067070,17.109251,16.542166
81.665977,16.415701,17.408230
84.232742,17.377279,16.816042
82.396706,16.817513,16.827497
82.669426,16.942194,16.692131
81.872787,16.694843,16.711496
83.914742,17.123524,17.322672
82.124252,16.521650,17.514042
82.045547,16.655148,17.007675
81.958923,16.328831,17.973415
82.119400,16.103857,18.853903
83.795296,17.170967,17.053535
84.505974,17.481161,16.748116
81.776978,16.273897,17.972820
82.771805,17.042255,16.469906
81.592827,16.593239,16.765543
83.069504,16.651186,18.018742
83.479446,16.895473,17.632215
82.355232,16.501440,17.804276
82.354240,16.486462,17.851530
84.075462,17.430407,16.491724
81.956352,16.173166,18.471886
83.128181,17.070395,16.726805
83.237701,16.935785,17.266788
81.903885,15.760876,19.747610
81.999763,15.917070,19.338409
83.403107,17.109520,16.868919
81.668098,16.117926,18.368637
81.810654,15.746832,19.701912
81.640091,16.344687,17.611538
81.838943,16.164360,18.385754
80.778038,27.320547,42.281422
80.170357,26.852201,42.137791
80.237343,26.771313,42.086235
80.665833,27.387379,42.332863
80.776833,26.124630,41.673454
81.015114,27.110424,42.137688
81.029640,26.692862,41.923088
81.091202,27.092686,42.116829
80.263199,27.061367,42.229710
80.934410,26.164820,41.669376
79.968536,27.174749,42.333206
81.032661,26.546074,41.847969
80.048706,27.049463,42.257027
79.814095,27.090048,42.314159
81.081100,25.757673,41.439514
81.608315,25.410427,41.180912
81.667389,25.498123,41.216320
80.595757,27.262249,42.280132
81.233322,25.558111,41.314350
80.037186,27.480730,42.478127
79.604149,27.197847,42.401642
79.809502,27.215458,42.378651
80.437096,27.255810,42.301537
80.392242,26.985737,42.171177
80.670265,27.562168,42.421055
80.919640,27.406389,42.303043
79.923943,27.409805,42.459679
81.775398,25.369255,41.133984
81.049377,27.246634,42.201622
80.023178,27.300932,42.388874
80.322029,26.590586,41.981155
81.046356,26.501329,41.823090
81.600197,25.692387,41.325558
80.568932,26.505466,41.899460
81.023964,26.170549,41.658360
81.373917,25.838406,41.435017
80.432465,27.561161,42.457539
80.430679,26.956432,42.150295
79.671341,27.457577,42.523266
81.509880,25.313663,41.147022
81.069603,25.724554,41.424461
80.719688,26.207983,41.724731
80.643639,26.952553,42.115196
81.499199,25.959297,41.477005
81.242638,25.727642,41.399113
81.242470,26.743109,41.915531
80.194946,27.322609,42.373180
81.442741,25.814127,41.411964
81.350952,25.814730,41.426548
80.405647,27.480396,42.420639
79.701202,27.256327,42.416283
81.161034,26.040318,41.570812
81.718536,25.069674,40.990482
81.921150,24.850622,40.847572
80.067818,26.826727,42.140789
81.023743,26.514713,41.833408
79.976891,27.093742,42.290718
80.934853,26.415197,41.796631
80.111618,26.769655,42.104950
81.639740,25.729511,41.338287
80.625656,26.566875,41.921867
81.493568,25.443548,41.215607
80.965073,26.156656,41.660458
80.793503,27.150457,42.192520
80.457550,26.924232,42.129742
81.079903,26.390068,41.761288
79.679543,27.406986,42.496265
80.837067,27.540859,42.384274
80.689552,26.575615,41.916367
80.900299,26.770844,41.982861
80.249504,26.830259,42.114319
80.868576,26.047871,41.620148
80.409416,26.784769,42.066307
81.383041,25.119608,41.068069
81.737129,25.012526,40.958530
81.947212,24.722147,40.778187
80.677727,25.879065,41.563999
80.866432,25.187979,41.183212
80.374680,25.202797,41.267246
80.130730,24.804178,41.102497
81.411377,25.199654,41.104370
80.663193,24.461100,40.845196
81.315262,25.220474,41.129910
79.644783,26.775740,42.180668
81.154617,24.973316,41.029213
80.435669,24.515635,40.908321
80.395058,24.464834,40.888809
80.015236,25.318727,41.382122
79.606049,26.573133,42.083668
80.048615,26.363846,41.908390
81.185112,24.908878,40.991703
80.458275,24.645178,40.970680
80.307655,24.297756,40.817444
79.676811,25.969833,41.765869
79.762962,26.699648,42.123589
80.894592,25.827110,41.503838
80.973839,25.552593,41.351913
79.941261,26.287153,41.886093
80.559669,25.382067,41.329628
80.137993,24.394943,40.893261
80.065071,25.901051,41.670486
81.373871,25.029642,41.023746
80.361969,25.937340,41.642754
79.864281,25.439793,41.467167
81.421524,25.167171,41.086273
81.340042,24.710367,40.866653
80.692451,24.946066,41.087257
81.487213,24.672234,40.824368
79.622017,26.441498,42.014244
81.365089,25.299292,41.162235
81.326050,24.525288,40.774715
81.349617,24.890692,40.956860
79.650208,26.371323,41.974171
80.355438,26.105936,41.729504
79.956947,26.202955,41.840836
79.717873,26.012556,41.781208
80.048279,25.950937,41.698471
80.469246,24.361462,40.824699
80.698166,24.808401,41.016365
81.178345,24.471052,40.770115
80.371758,25.893240,41.618809
80.137802,24.679735,41.038109
81.268387,25.008322,41.029316
81.731621,24.609291,40.754337
81.511665,25.233114,41.105782
81.262398,25.103807,41.078804
79.894501,25.798157,41.644699
80.273010,26.428385,41.906300
79.890320,26.311213,41.906250
80.935188,25.187101,41.172070
80.460075,25.656910,41.484886
80.508133,24.239391,40.756577
79.893005,24.951778,41.214535
80.664978,25.307085,41.275116
80.392685,25.650614,41.492168
79.877930,25.323935,41.406132
80.518661,24.612638,40.944740
79.929008,25.193394,41.331799
79.696022,26.529343,42.047401
80.053810,25.861149,41.651951
81.342812,24.388134,40.702358
80.649017,24.180145,40.704529
80.680405,24.363298,40.792786
80.217613,24.628920,40.999855
81.084488,24.788168,40.945972
79.829140,26.548313,42.036335
80.182533,24.095272,40.733940
80.127815,26.001425,41.711769
80.959793,25.237816,41.194027
80.219910,24.103767,40.732445
80.863838,24.934355,41.054638
79.712471,25.779705,41.663635
80.759995,25.797497,41.509716
80.804436,25.393015,41.297119
80.369751,24.439381,40.879803
80.811417,24.619333,40.902603
79.984230,26.158783,41.814125
80.878159,24.846273,41.007618
79.822556,25.457491,41.482658
79.922852,24.734013,41.099155
80.596176,26.075018,41.676331
80.869843,25.099966,41.137924
81.231728,24.924826,40.992561
79.989555,24.354250,40.895657
79.810112,26.412338,41.970150
79.864258,26.131054,41.818691
80.255486,24.372005,40.863316
79.673058,26.711132,42.143417
80.194824,25.170061,41.278580
79.816422,25.990961,41.754890
80.129257,25.368141,41.389511
80.092331,25.794012,41.611816
81.304802,24.459793,40.744713
81.317284,24.767986,40.899494
81.136353,25.078182,41.085384
80.375366,25.125622,41.227898
80.013222,26.014318,41.736153
80.589676,25.766045,41.520222
80.413200,25.943220,41.637775
78.870766,28.846203,5.065860
78.475128,27.553202,5.452354
78.911278,27.468828,5.491394
78.459457,27.833143,5.365645
78.046776,27.722618,5.387349
78.729630,28.670908,5.115640
78.623436,28.400740,5.195693
78.532898,27.379536,5.507582
79.069984,28.096643,5.302732
78.352173,27.967693,5.320985
78.718582,29.031975,5.004078
78.640846,27.690329,5.415067
78.346970,28.551355,5.141023
78.801506,27.562859,5.459142
79.194656,27.352091,5.535833
78.689011,30.091291,4.676853
79.302856,27.273384,5.563317
78.589119,29.051846,4.994083
78.558502,28.126171,5.278336
78.957336,29.204960,4.957929
78.046906,27.413212,5.482670
78.525375,27.725199,5.400870
78.579323,27.949123,5.333501
78.594353,30.011332,4.698655
78.680183,29.388416,4.893121
79.227882,27.405800,5.520282
78.368683,29.050694,4.987844
78.698784,27.786720,5.387105
78.361023,29.036539,4.991975
78.241791,28.586924,5.126919
78.848122,27.558529,5.461871
78.938187,28.938419,5.039467
78.621941,29.477278,4.864003
78.867218,29.285606,4.930388
78.740417,29.556561,4.843123
78.805618,29.515663,4.857673
79.172302,27.503885,5.488402
79.154663,27.430290,5.510546
78.895340,27.417063,5.506863
78.432121,27.563030,5.448040
78.748886,29.313108,4.918376
78.522552,29.631964,4.813376
78.712334,29.024063,5.006328
78.534782,28.497055,5.163369
78.392242,28.251955,5.234612
78.398064,27.962460,5.323971
78.326866,27.301983,5.525311
78.490982,30.075523,4.675786
78.451744,29.721031,4.783820
78.868065,29.675135,4.810413
78.218483,28.088037,5.279912
78.993416,28.734297,5.104003
78.432022,28.739996,5.085454
78.830177,27.202801,5.570921
79.302330,27.579987,5.468848
78.839462,27.203220,5.571070
78.169609,27.474821,5.467360
78.403648,28.658041,5.109852
78.450340,27.149881,5.575861
79.273781,27.573973,5.469846
78.338135,28.877108,5.040405
78.178429,27.435749,5.479661
78.575562,30.174706,4.647762
78.545670,30.089199,4.673209
78.850677,27.828312,5.378836
78.117592,27.250834,5.534808
79.229973,27.217442,5.578371
78.785553,27.884296,5.359641
78.643578,28.377502,5.203454
78.900650,29.451099,4.880406
78.907349,28.152197,5.280753
78.695320,29.137609,4.970839
78.858902,29.633099,4.823089
78.013390,28.278030,5.215246
78.213417,30.107462,4.657644
77.958313,29.044773,4.977391
77.926430,27.583517,5.426600
77.934769,30.709991,4.463689
78.050003,29.606289,4.807150
78.212914,29.655485,4.796867
77.904533,30.808876,4.432321
78.174179,29.440916,4.861811
78.192627,30.829439,4.434606
78.107506,29.779007,4.755662
77.969826,28.883505,5.027417
78.026611,29.665531,4.788199
78.312195,29.857874,4.737489
78.229637,30.120457,4.654126
77.914032,27.494217,5.453740
78.155388,30.292992,4.598752
78.393570,30.085663,4.669749
78.458138,30.857525,4.433897
78.039917,30.689060,4.473284
78.018105,27.905144,5.330261
78.326653,30.291292,4.604400
77.902168,28.166027,5.246423
77.993713,28.159815,5.251076
77.998695,30.337715,4.580287
77.897453,28.727383,5.073348
77.921562,29.897877,4.713480
78.004402,27.840353,5.349811
78.023544,28.392656,5.180238
78.084709,28.694681,5.089024
78.101555,29.117083,4.959399
78.472473,30.500799,4.544220
78.331139,29.580168,4.823607
77.944046,28.933926,5.011113
78.105362,28.237310,5.230542
78.230278,28.907827,5.027715
78.059776,29.082150,4.968912
80.607460,15.309442,26.303841
81.718315,15.332682,25.465641
79.772858,15.245106,26.477869
81.041405,15.367547,26.453049
80.638718,15.262505,25.817574
79.268517,15.294907,27.445160
81.415962,15.206300,24.526587
81.481865,15.347980,25.840864
78.812927,15.294005,27.872845
79.042175,15.275786,27.476114
79.967735,15.268294,26.516636
80.491920,15.375320,27.054996
80.582657,15.374974,26.964718
78.879890,15.244768,27.329998
81.537415,15.481867,27.089314
79.343925,15.344591,27.855968
81.042526,15.500625,27.745760
80.407791,15.242856,25.847775
81.208832,15.486229,27.446478
79.251053,15.305067,27.560677
81.727699,15.236681,24.523335
80.735435,15.302187,26.110722
80.932549,15.355993,26.444996
79.051857,15.233827,27.058899
79.830978,15.399147,27.919785
81.284058,15.240061,24.981176
80.789307,15.286699,25.908548
81.140518,15.230010,25.020966
80.548660,15.225335,25.542480
80.964699,15.387066,26.716286
79.971634,15.418742,27.975548
80.409348,15.386926,27.246912
79.136513,15.262814,27.259624
80.962936,15.234215,25.231968
79.502892,15.288448,27.157858
81.288887,15.452963,27.046385
78.923210,15.213525,26.984766
79.993866,15.334770,27.137878
81.202927,15.442940,27.031281
81.435562,15.244261,24.876863
79.580696,15.229118,26.506525
80.458763,15.242028,25.790888
80.059265,15.403233,27.740826
79.731590,15.241177,26.479200
81.533409,15.381963,26.121885
80.400856,15.317303,26.578178
80.838516,15.255773,25.560734
80.691689,15.373078,26.841839
81.710579,15.466654,26.775532
81.084824,15.430273,27.021271
79.433174,15.274333,27.087421
80.614433,15.359397,26.782831
80.530090,15.331199,26.589481
81.053299,15.356789,26.337059
81.702446,15.477036,26.884268
79.571854,15.352774,27.717180
81.021782,15.386218,26.653357
81.617714,15.431811,26.525751
81.492836,15.295158,25.316830
80.535973,15.286035,26.144764
81.576126,15.531929,27.538935
81.346146,15.399101,26.467892
79.813316,15.385184,27.800964
81.370659,15.462576,27.061508
79.774292,15.347409,27.471090
80.736206,15.403410,27.094070
79.640915,15.248690,26.639109
79.832123,15.346668,27.408489
80.030144,15.423017,27.961063
80.887878,15.479059,27.684240
78.735420,15.276240,27.774376
80.826637,15.217769,25.202627
80.860153,15.275686,25.733608
81.334892,15.239772,24.929678
81.007645,15.490379,27.679556
80.832115,15.259791,25.605930
80.677406,15.474466,27.841211
81.678230,15.550522,27.621881
80.084358,15.316178,26.870428
79.283783,15.246279,26.957794
81.665962,15.570138,27.824345
81.584000,15.306903,25.343678
81.590424,15.510202,27.314003
80.893387,15.482126,27.708778
81.342575,15.513525,27.583742
81.263733,15.378404,26.345619
81.364273,15.419065,26.644606
80.785912,15.311269,26.150663
79.144814,15.330947,27.914055
81.252266,15.419199,26.753214
80.721634,15.209981,25.227510
81.596298,15.469581,26.913458
79.953644,15.272468,26.570690
81.437935,15.486224,27.226967
78.412651,15.256979,27.896307
80.843468,15.411346,27.068478
78.113350,15.215952,27.784168
81.455353,15.411338,26.482248
80.596405,15.228231,25.524900
81.296684,15.407319,26.595163
81.654701,15.538533,27.527874
80.096237,15.356129,27.247463
81.276100,15.339358,25.954166
81.195053,15.508800,27.679110
80.746048,15.290435,25.986298
80.794792,15.413288,27.133974
80.896065,15.266468,25.609577
81.669228,15.575733,27.875612
81.224823,15.496349,27.529562
81.116623,15.528367,27.944483
78.331169,15.229977,27.711845
79.490311,15.294802,27.231686
79.935127,15.229864,26.174244
78.928040,15.253186,27.365730
79.500969,15.277707,27.055275
80.127617,15.421020,27.848267
79.047844,15.310769,27.810781
81.419792,15.239373,24.844469
80.251015,15.360284,27.139589
79.646500,15.337928,27.501324
78.442810,15.227490,27.580738
81.729172,15.264859,24.795872
81.323410,15.413879,26.633341
80.786049,15.426222,27.268095
81.654243,15.544962,27.590811
79.235909,15.330929,27.826611
80.805519,15.433724,27.322388
78.254494,15.219660,27.685001
79.261192,15.221872,26.742149
81.358109,15.220831,24.723286
79.794395,15.267769,26.677567
79.448486,15.258635,26.920132
80.563858,15.407577,27.299681
80.423561,15.462881,27.971741
81.028931,15.223059,25.060276
78.394531,15.260475,27.947653
78.286407,15.220067,27.658392
80.991043,15.454896,27.350489
81.524971,15.438541,26.680017
81.647629,15.356932,25.769110
80.796822,15.453040,27.518511
80.413651,15.459040,27.943895
80.787758,15.268541,25.733486
81.602615,15.405223,26.281727
79.797348,15.218923,26.199862
79.668015,15.343823,27.538048
79.257515,15.228115,26.806362
80.998100,15.258874,25.438005
81.685837,15.399860,26.149870
81.636848,15.203316,24.285980
80.072739,15.279137,26.521454
80.237152,15.369385,27.241352
80.613213,15.406888,27.245705
80.685966,15.433379,27.433563
81.227119,15.413596,26.722834
81.456047,15.551099,27.840324
81.520020,15.242303,24.776939
79.597076,15.309699,27.274235
81.238602,15.497455,27.527107
81.266960,15.424747,26.793076
81.094025,15.210186,24.872770
81.234253,15.500118,27.557165
79.945816,15.246451,26.325268
79.857407,15.214089,26.095339
81.597099,15.579941,27.985620
80.391457,15.343079,26.837776
81.147171,15.489965,27.541883
80.209724,15.338045,26.962933
79.560921,15.266140,26.885389
81.590782,15.495989,27.175480
80.774765,15.434252,27.356979
80.263962,15.372370,27.244680
79.695534,15.391669,27.976845
80.000717,15.218352,25.999493
81.503647,15.329942,25.644636
81.735153,15.283258,24.969009
80.658310,15.431911,27.445774
79.427879,15.357800,27.903969
79.206535,15.266274,27.226179
78.293381,15.228461,27.733311
80.377274,15.257201,26.016466
79.790573,15.275849,26.759794
80.607002,15.367119,26.865017
78.539841,15.245958,27.667328
80.197517,15.299088,26.595892
81.745621,15.218991,24.334187
81.634621,15.292868,25.158741
79.391449,15.258426,26.972742
80.943123,15.196491,24.884186
79.439674,15.073071,25.124477
78.211784,15.144566,26.995825
78.195900,15.152045,27.083767
79.488579,15.056632,24.917797
78.988403,15.207199,26.860813
78.839409,15.088886,25.853256
80.318405,15.184660,25.367599
79.634705,15.170704,25.886868
78.809166,15.200391,26.966312
79.403831,14.996860,24.417852
78.043381,15.071644,26.448164
80.003136,15.101339,24.859535
79.993637,15.178327,25.617142
79.899239,15.200135,25.919605
80.048248,15.164011,25.425638
79.602943,15.195839,26.161667
78.421661,15.116736,26.524206
78.819771,15.066978,25.659067
78.689613,15.117360,26.273579
79.100746,15.099442,25.705530
80.604584,15.100291,24.273191
78.762718,14.911593,24.203009
78.177689,14.950897,25.145559
78.983940,15.066075,25.493031
78.500801,14.900423,24.345318
81.635307,15.186481,24.123787
78.109451,14.859784,24.325106
79.427513,15.142884,25.814875
78.309448,14.861472,24.149925
78.269623,14.909597,24.655958
78.856392,15.010148,25.071459
79.803856,15.188164,25.894577
78.595909,15.164930,26.825848
79.188980,15.131015,25.927979
81.012360,15.134177,24.212025
79.123878,15.013240,24.845284
78.888298,15.142200,26.324762
79.656311,15.099031,25.169346
78.316177,15.176366,27.204992
78.573013,15.079561,26.017792
79.583923,15.129924,25.539043
78.524330,15.043061,25.709557
78.445824,14.896173,24.356665
80.116760,15.109913,24.834049
78.128586,15.019279,25.857431
77.937057,15.162663,27.434942
80.916191,15.171610,24.668081
78.394630,15.088625,26.276787
78.190453,14.934630,24.975187
80.553284,15.168777,24.988192
79.368744,15.121534,25.663589
78.970993,15.197370,26.781912
80.548203,15.098494,24.309727
80.266136,15.091866,24.515505
78.272095,15.055583,26.072922
79.552483,15.177718,26.033827
78.302986,14.944873,24.966957
